ply
    format ascii 1.0
    element vertex 47676
    property float x
    property float y
    property float z
    property uchar red
    property uchar green
    property uchar blue
    end_header
-2.730769 -0.211538 -8.523077 18 61 107 
-2.718072 -0.212048 -8.543614 19 63 107 
-2.692308 -0.211538 -8.523077 22 63 107 
-2.679518 -0.212048 -8.543614 23 62 106 
-2.660241 -0.212048 -8.543614 21 61 102 
-2.644150 -0.212304 -8.553921 21 61 104 
-2.628019 -0.212560 -8.564252 21 66 111 
-2.611850 -0.212817 -8.574607 23 68 113 
-2.589372 -0.212560 -8.564252 26 69 112 
-2.573156 -0.212817 -8.574607 28 71 115 
-2.550725 -0.212560 -8.564252 29 70 113 
-2.531401 -0.212560 -8.564252 32 70 113 
-2.518160 -0.213075 -8.584989 26 67 115 
-2.501818 -0.213333 -8.595394 25 68 113 
-2.488457 -0.213852 -8.616282 25 68 110 
-2.472019 -0.214112 -8.626764 25 68 112 
-2.449575 -0.213852 -8.616282 22 70 117 
-2.427185 -0.213592 -8.605825 21 70 117 
-2.413625 -0.214112 -8.626764 19 69 116 
-2.388350 -0.213592 -8.605825 19 66 109 
-2.352369 -0.213852 -8.616282 23 69 116 
-2.341463 -0.214634 -8.647805 23 71 117 
-2.310680 -0.213592 -8.605825 24 73 118 
-2.310894 -0.215422 -8.679560 21 72 119 
-2.274605 -0.213852 -8.616282 19 70 120 
-2.266178 -0.214896 -8.658364 19 69 118 
-2.243902 -0.214634 -8.647805 20 68 117 
-2.224390 -0.214634 -8.647805 20 68 119 
-2.207570 -0.214896 -8.658364 19 69 119 
-2.190709 -0.215159 -8.668949 20 68 118 
-2.171149 -0.215159 -8.668949 18 65 117 
-2.154223 -0.215422 -8.679560 19 65 115 
-2.137255 -0.215686 -8.690196 19 64 116 
-2.120245 -0.215951 -8.700859 20 64 115 
-2.105781 -0.216482 -8.722263 19 67 117 
-2.083538 -0.216216 -8.711548 18 65 116 
-2.066421 -0.216482 -8.722263 15 64 112 
-2.046741 -0.216482 -8.722263 18 64 111 
-2.027060 -0.216482 -8.722263 20 65 113 
-2.007380 -0.216482 -8.722263 18 62 113 
-1.995062 -0.217284 -8.754568 19 62 114 
-1.972873 -0.217016 -8.743773 18 65 116 
-1.960396 -0.217822 -8.776237 19 66 115 
-1.940594 -0.217822 -8.776237 19 64 112 
-1.927950 -0.218634 -8.808945 19 62 107 
-1.908074 -0.218634 -8.808945 16 61 109 
-1.888199 -0.218634 -8.808945 15 59 108 
-1.868323 -0.218634 -8.808945 15 57 104 
-1.848447 -0.218634 -8.808945 16 57 106 
-1.821782 -0.217822 -8.776237 15 56 105 
-1.804213 -0.218092 -8.787113 17 55 102 
-1.784387 -0.218092 -8.787113 16 54 98 
-1.764560 -0.218092 -8.787113 16 54 99 
-1.744734 -0.218092 -8.787113 16 56 100 
-1.707196 -0.218362 -8.798016 17 56 100 
-1.691542 -0.218905 -8.819901 17 58 101 
-1.669565 -0.218634 -8.808945 25 62 104 
-1.649689 -0.218634 -8.808945 22 59 100 
-1.631841 -0.218905 -8.819901 20 55 99 
-1.613948 -0.219178 -8.830884 18 55 98 
-1.594022 -0.219178 -8.830884 19 56 99 
-1.572139 -0.218905 -8.819901 18 55 101 
-1.556110 -0.219451 -8.841895 16 54 101 
-1.536160 -0.219451 -8.841895 17 53 95 
-1.518102 -0.219725 -8.852934 17 53 94 
-1.496259 -0.219451 -8.841895 19 55 98 
-1.480000 -0.220000 -8.864000 18 56 101 
-1.460000 -0.220000 -8.864000 17 56 101 
-1.440000 -0.220000 -8.864000 16 54 99 
-1.423559 -0.220551 -8.886216 17 51 91 
-1.405270 -0.220828 -8.897366 19 49 89 
-1.385194 -0.220828 -8.897366 17 52 95 
-1.368553 -0.221384 -8.919748 15 54 101 
-1.350126 -0.221662 -8.930983 14 53 102 
-1.329975 -0.221662 -8.930983 18 55 100 
-1.311475 -0.221942 -8.942245 18 56 100 
-1.292929 -0.222222 -8.953536 15 55 99 
-1.272727 -0.222222 -8.953536 15 55 100 
-1.212121 -0.222222 -8.953536 16 55 96 
-1.190416 -0.221942 -8.942245 21 56 99 
-1.168766 -0.221662 -8.930983 18 50 92 
-1.148615 -0.221662 -8.930983 19 48 86 
-1.129887 -0.221942 -8.942245 17 49 90 
-1.108312 -0.221662 -8.930983 19 48 84 
-1.089533 -0.221942 -8.942245 20 49 86 
-1.073418 -0.222785 -8.976203 18 48 83 
-1.051833 -0.222503 -8.964855 18 50 88 
-1.034221 -0.223067 -8.987579 19 51 89 
-1.013942 -0.223067 -8.987579 18 49 87 
-0.998726 -0.224204 -9.033376 18 50 87 
-0.972152 -0.222785 -8.976203 21 50 87 
-0.955527 -0.223634 -9.010420 20 47 82 
-0.934010 -0.223350 -8.998985 20 45 80 
-0.914867 -0.223634 -9.010420 20 45 78 
-0.896815 -0.224204 -9.033376 20 47 83 
-0.877551 -0.224490 -9.044898 19 47 85 
-0.856051 -0.224204 -9.033376 20 49 87 
-0.837803 -0.224777 -9.056450 20 48 86 
-0.818414 -0.225064 -9.068031 19 47 84 
-0.796935 -0.224777 -9.056450 18 47 82 
-0.777494 -0.225064 -9.068031 19 49 86 
-0.758974 -0.225641 -9.091282 19 48 82 
-0.737516 -0.225352 -9.079641 19 48 83 
-0.716113 -0.225064 -9.068031 19 49 89 
-0.697436 -0.225641 -9.091282 17 47 85 
-0.675192 -0.225064 -9.068031 14 46 86 
-0.636714 -0.225931 -9.102953 19 44 80 
-0.616175 -0.225931 -9.102953 18 43 81 
-0.595635 -0.225931 -9.102953 18 44 81 
-0.575835 -0.226221 -9.114654 18 45 86 
-0.555270 -0.226221 -9.114654 18 47 86 
-0.535393 -0.226512 -9.126384 20 47 85 
-0.514800 -0.226512 -9.126384 20 47 86 
-0.494208 -0.226512 -9.126384 19 47 84 
-0.474227 -0.226804 -9.138144 19 45 80 
-0.453024 -0.226512 -9.126384 19 44 77 
-0.431322 -0.225931 -9.102953 19 45 77 
-0.411311 -0.226221 -9.114654 16 42 72 
-0.391248 -0.226512 -9.126384 17 41 74 
-0.370180 -0.226221 -9.114654 15 40 75 
-0.330749 -0.227390 -9.161757 17 42 76 
-0.311284 -0.228275 -9.197406 17 42 74 
-0.290532 -0.228275 -9.197406 18 39 72 
-0.269780 -0.228275 -9.197406 18 40 71 
-0.248705 -0.227979 -9.185493 19 41 71 
-0.229167 -0.229167 -9.233334 19 41 71 
-0.207523 -0.228275 -9.197406 18 41 73 
-0.187013 -0.228571 -9.209351 16 41 71 
-0.166450 -0.228869 -9.221327 18 41 71 
-0.145833 -0.229167 -9.233334 17 38 66 
-0.125163 -0.229465 -9.245372 18 39 67 
-0.104167 -0.229167 -9.233334 19 38 69 
-0.083551 -0.229765 -9.257442 19 38 66 
-0.062338 -0.228571 -9.209351 16 37 65 
-0.041612 -0.228869 -9.221327 14 36 64 
-0.020725 -0.227979 -9.185493 17 37 65 
0.000000 -0.228869 -9.221327 19 36 62 
0.020806 -0.228869 -9.221327 17 34 59 
0.083879 -0.230668 -9.293840 15 33 58 
0.104712 -0.230366 -9.281675 18 34 60 
0.125654 -0.230366 -9.281675 16 34 59 
0.146597 -0.230366 -9.281675 17 36 60 
0.167979 -0.230971 -9.306037 17 37 65 
0.189474 -0.231579 -9.330526 17 39 66 
0.211082 -0.232190 -9.355145 18 37 62 
0.232497 -0.232497 -9.367503 16 34 57 
0.253298 -0.232190 -9.355145 17 36 64 
0.272608 -0.230668 -9.293840 38 56 71 
0.293578 -0.230668 -9.293840 102 114 110 
1.080675 -0.330206 -13.304316 55 63 61 
1.104478 -0.328358 -13.229851 48 57 54 
7.733333 -0.586667 -23.637335 135 175 195 
7.812709 -0.588629 -23.716389 135 179 203 
7.892617 -0.590604 -23.795975 131 180 210 
7.973064 -0.592593 -23.876095 127 181 215 
8.054054 -0.594595 -23.956757 122 183 221 
8.108109 -0.594595 -23.956757 117 182 225 
8.162162 -0.594595 -23.956757 116 183 230 
8.216216 -0.594595 -23.956757 119 185 230 
8.298306 -0.596610 -24.037968 120 183 227 
8.324325 -0.594595 -23.956757 118 180 222 
8.435374 -0.598639 -24.119728 117 176 217 
8.489796 -0.598639 -24.119728 112 172 210 
8.573379 -0.600683 -24.202049 111 167 205 
8.687285 -0.604811 -24.368385 108 157 190 
10.875000 -0.687500 -27.700001 38 47 47 
10.937500 -0.687500 -27.700001 38 47 49 
11.000000 -0.687500 -27.700001 41 49 49 
11.062500 -0.687500 -27.700001 44 51 50 
11.125000 -0.687500 -27.700001 45 52 52 
11.187500 -0.687500 -27.700001 48 54 53 
12.500000 -0.687500 -27.700001 67 70 68 
12.562500 -0.687500 -27.700001 62 68 66 
12.750000 -0.687500 -27.700001 14 18 14 
12.812500 -0.687500 -27.700001 15 19 17 
12.875000 -0.687500 -27.700001 19 23 19 
12.937500 -0.687500 -27.700001 25 28 23 
13.000000 -0.687500 -27.700001 32 33 29 
13.437500 -0.687500 -27.700001 39 85 105 
13.500000 -0.687500 -27.700001 48 109 139 
13.227437 -0.635379 -25.600000 143 173 180 
13.333333 -0.637681 -25.692755 151 180 185 
13.342960 -0.635379 -25.600000 156 183 189 
13.449275 -0.637681 -25.692755 157 184 192 
13.605840 -0.642336 -25.880293 157 184 191 
13.714286 -0.644689 -25.975092 155 181 188 
-5.194445 -0.333333 -12.311111 206 208 204 
-5.166667 -0.333333 -12.311111 205 208 205 
-5.094665 -0.330465 -12.205164 205 207 202 
-2.924731 -0.229391 -8.472162 59 93 122 
-2.912575 -0.229940 -8.492455 45 67 82 
-2.900360 -0.230492 -8.512845 25 45 62 
-2.874252 -0.229940 -8.492455 17 36 57 
-2.855090 -0.229940 -8.492455 17 42 72 
-2.849579 -0.231047 -8.533334 22 63 106 
-2.826923 -0.230769 -8.523077 20 64 107 
-2.790920 -0.229391 -8.472162 19 61 104 
-2.788461 -0.230769 -8.523077 18 58 102 
-2.772563 -0.231047 -8.533334 18 54 95 
-2.750000 -0.230769 -8.523077 18 54 93 
-2.730769 -0.230769 -8.523077 18 57 98 
-2.718072 -0.231325 -8.543614 18 59 100 
-2.692308 -0.230769 -8.523077 20 61 102 
-2.679518 -0.231325 -8.543614 22 62 104 
-2.660241 -0.231325 -8.543614 22 60 101 
-2.644150 -0.231604 -8.553921 20 57 99 
-2.628019 -0.231884 -8.564252 22 61 104 
-2.611850 -0.232164 -8.574607 21 64 105 
-2.592503 -0.232164 -8.574607 21 64 106 
-2.576271 -0.232446 -8.584989 24 65 109 
-2.553809 -0.232164 -8.574607 27 64 107 
-2.518160 -0.232446 -8.584989 28 66 111 
-2.504854 -0.233010 -8.605825 26 69 112 
-2.485437 -0.233010 -8.605825 26 70 111 
-2.469016 -0.233293 -8.616282 25 70 114 
-2.446602 -0.233010 -8.605825 26 69 116 
-2.427185 -0.233010 -8.605825 22 69 115 
-2.410693 -0.233293 -8.616282 20 69 112 
-2.388350 -0.233010 -8.605825 21 64 108 
-2.352369 -0.233293 -8.616282 23 68 111 
-2.344322 -0.234432 -8.658364 22 69 115 
-2.313725 -0.235294 -8.690196 17 65 112 
-2.271726 -0.235006 -8.679560 18 66 114 
-2.249389 -0.234719 -8.668949 20 68 116 
-2.227106 -0.234432 -8.658364 18 69 119 
-2.210269 -0.234719 -8.668949 18 68 117 
-2.193390 -0.235006 -8.679560 18 65 115 
-2.173807 -0.235006 -8.679560 18 63 112 
-2.156863 -0.235294 -8.690196 20 66 114 
-2.137255 -0.235294 -8.690196 20 68 117 
-2.120245 -0.235583 -8.700859 17 64 114 
-2.103194 -0.235872 -8.711548 19 63 113 
-2.083538 -0.235872 -8.711548 18 64 112 
-2.066421 -0.236162 -8.722263 18 63 110 
-2.046741 -0.236162 -8.722263 18 62 108 
-2.029557 -0.236453 -8.733006 19 61 110 
-2.009852 -0.236453 -8.733006 19 64 114 
-1.992602 -0.236745 -8.743773 20 69 116 
-1.975309 -0.237037 -8.754568 20 67 116 
-1.957973 -0.237330 -8.765389 19 65 111 
-1.940594 -0.237624 -8.776237 19 62 108 
-1.927950 -0.238509 -8.808945 20 60 109 
-1.908074 -0.238509 -8.808945 16 61 113 
-1.885856 -0.238213 -8.798016 13 61 113 
-1.868323 -0.238509 -8.808945 16 62 110 
-1.846154 -0.238213 -8.798016 19 62 110 
-1.819530 -0.237330 -8.765389 20 62 111 
-1.804213 -0.237918 -8.787113 21 61 106 
-1.786600 -0.238213 -8.798016 21 56 100 
-1.766749 -0.238213 -8.798016 21 57 99 
-1.746898 -0.238213 -8.798016 20 59 101 
-1.711443 -0.238806 -8.819901 21 57 103 
-1.693649 -0.239103 -8.830884 22 59 105 
-1.669565 -0.238509 -8.808945 23 62 104 
-1.647643 -0.238213 -8.798016 22 60 104 
-1.629814 -0.238509 -8.808945 19 57 104 
-1.611940 -0.238806 -8.819901 20 56 98 
-1.594022 -0.239103 -8.830884 20 56 97 
-1.572139 -0.238806 -8.819901 22 58 103 
-1.558052 -0.239700 -8.852934 19 58 101 
-1.536160 -0.239401 -8.841895 21 58 97 
-1.518102 -0.239700 -8.852934 21 57 100 
-1.496259 -0.239401 -8.841895 23 58 102 
-1.480000 -0.240000 -8.864000 20 55 100 
-1.460000 -0.240000 -8.864000 20 55 100 
-1.443609 -0.240602 -8.886216 19 57 100 
-1.425345 -0.240903 -8.897366 18 56 101 
-1.407035 -0.241206 -8.908543 18 52 96 
-1.386935 -0.241206 -8.908543 18 53 94 
-1.370277 -0.241814 -8.930983 18 54 98 
-1.350126 -0.241814 -8.930983 16 54 99 
-1.329975 -0.241814 -8.930983 19 56 100 
-1.309824 -0.241814 -8.930983 22 60 102 
-1.292929 -0.242424 -8.953536 24 62 105 
-1.272727 -0.242424 -8.953536 22 62 103 
-1.212121 -0.242424 -8.953536 18 54 97 
-1.188917 -0.241814 -8.930983 25 61 103 
-1.168766 -0.241814 -8.930983 22 59 97 
-1.150063 -0.242119 -8.942245 17 51 92 
-1.132743 -0.242731 -8.964855 13 50 87 
-1.109710 -0.242119 -8.942245 14 46 84 
-1.090909 -0.242424 -8.953536 19 48 85 
-1.076142 -0.243655 -8.998985 15 47 86 
-1.053165 -0.243038 -8.976203 14 47 90 
-1.035533 -0.243655 -8.998985 15 48 92 
-1.013942 -0.243346 -8.987579 15 47 90 
-0.997455 -0.244275 -9.021883 18 47 88 
-0.972152 -0.243038 -8.976203 21 48 86 
-0.955527 -0.243964 -9.010420 19 46 82 
-0.935197 -0.243964 -9.010420 20 46 83 
-0.916031 -0.244275 -9.021883 19 45 79 
-0.897959 -0.244898 -9.044898 19 48 84 
-0.878672 -0.245211 -9.056450 21 50 89 
-0.857143 -0.244898 -9.044898 20 49 88 
-0.838875 -0.245524 -9.068031 20 49 87 
-0.818414 -0.245524 -9.068031 21 48 82 
-0.796935 -0.245211 -9.056450 22 46 80 
-0.777494 -0.245524 -9.068031 22 48 83 
-0.758974 -0.246154 -9.091282 19 49 85 
-0.737516 -0.245839 -9.079641 21 49 86 
-0.716113 -0.245524 -9.068031 20 50 85 
-0.697436 -0.246154 -9.091282 19 49 86 
-0.676056 -0.245839 -9.079641 19 50 88 
-0.616967 -0.246787 -9.114654 21 49 84 
-0.596401 -0.246787 -9.114654 21 48 82 
-0.576577 -0.247104 -9.126384 21 50 87 
-0.555985 -0.247104 -9.126384 20 49 90 
-0.535393 -0.247104 -9.126384 20 49 89 
-0.514800 -0.247104 -9.126384 21 49 83 
-0.492940 -0.246470 -9.102953 20 48 84 
-0.473616 -0.247104 -9.126384 19 46 82 
-0.452442 -0.246787 -9.114654 21 47 82 
-0.431877 -0.246787 -9.114654 20 47 81 
-0.412371 -0.247423 -9.138144 18 46 80 
-0.391248 -0.247104 -9.126384 18 45 78 
-0.370180 -0.246787 -9.114654 19 43 76 
-0.330323 -0.247742 -9.149936 18 40 74 
-0.311284 -0.249027 -9.197406 17 38 72 
-0.290532 -0.249027 -9.197406 16 37 69 
-0.270130 -0.249351 -9.209351 16 36 65 
-0.248705 -0.248705 -9.185493 18 40 71 
-0.229167 -0.250000 -9.233334 17 43 73 
-0.207523 -0.249027 -9.197406 18 43 75 
-0.186770 -0.249027 -9.197406 18 42 73 
-0.166450 -0.249675 -9.221327 19 42 75 
-0.145833 -0.250000 -9.233334 17 40 72 
-0.104167 -0.250000 -9.233334 19 40 68 
-0.062338 -0.249351 -9.209351 17 38 67 
-0.041667 -0.250000 -9.233334 16 36 66 
-0.020699 -0.248383 -9.173610 16 37 65 
0.000000 -0.249351 -9.209351 16 37 64 
0.020806 -0.249675 -9.221327 15 35 62 
0.104849 -0.251638 -9.293840 15 35 60 
0.125819 -0.251638 -9.293840 16 35 62 
0.146597 -0.251309 -9.281675 16 35 63 
0.167979 -0.251969 -9.306037 16 38 65 
0.189474 -0.252632 -9.330526 18 39 66 
0.210804 -0.252964 -9.342820 18 36 61 
0.232497 -0.253633 -9.367503 15 33 55 
0.253298 -0.253298 -9.355145 18 35 61 
0.272608 -0.251638 -9.293840 44 58 71 
0.293578 -0.251638 -9.293840 104 116 109 
1.080675 -0.360225 -13.304316 53 63 62 
7.707641 -0.637874 -23.558805 102 184 240 
7.786667 -0.640000 -23.637335 97 188 246 
7.840000 -0.640000 -23.637335 90 189 250 
7.867110 -0.637874 -23.558805 89 188 252 
7.946667 -0.640000 -23.637335 86 189 253 
8.108109 -0.648649 -23.956757 84 190 255 
8.162162 -0.648649 -23.956757 84 191 255 
8.326530 -0.653061 -24.119728 77 187 254 
8.380953 -0.653061 -24.119728 78 186 252 
8.464164 -0.655290 -24.202049 78 183 251 
8.518771 -0.655290 -24.202049 79 183 250 
8.573379 -0.655290 -24.202049 85 186 251 
8.657535 -0.657534 -24.284933 81 178 243 
8.742268 -0.659794 -24.368385 78 161 219 
10.937500 -0.750000 -27.700001 37 47 46 
11.000000 -0.750000 -27.700001 40 49 48 
11.062500 -0.750000 -27.700001 43 52 50 
11.125000 -0.750000 -27.700001 46 52 53 
12.500000 -0.750000 -27.700001 65 68 66 
12.562500 -0.750000 -27.700001 63 67 65 
12.750000 -0.750000 -27.700001 14 19 18 
12.812500 -0.750000 -27.700001 14 20 18 
12.875000 -0.750000 -27.700001 17 22 18 
12.937500 -0.750000 -27.700001 23 27 22 
13.000000 -0.750000 -27.700001 30 32 27 
13.375000 -0.750000 -27.700001 19 33 32 
13.437500 -0.750000 -27.700001 39 73 87 
13.500000 -0.750000 -27.700001 48 103 133 
13.275362 -0.695652 -25.692755 140 169 177 
13.333333 -0.695652 -25.692755 147 175 181 
13.342960 -0.693141 -25.600000 149 177 183 
13.449275 -0.695652 -25.692755 151 176 184 
13.556364 -0.698182 -25.786182 154 180 187 
13.614546 -0.698182 -25.786182 156 182 188 
-5.185442 -0.360485 -12.289775 206 208 204 
-5.157712 -0.360485 -12.289775 205 207 204 
-5.094665 -0.358003 -12.205164 206 207 203 
-2.928230 -0.248804 -8.482297 55 91 121 
-2.909091 -0.248804 -8.482297 46 71 92 
-2.900360 -0.249700 -8.512845 27 45 63 
-2.874252 -0.249102 -8.492455 18 34 51 
-2.855090 -0.249102 -8.492455 17 39 65 
-2.849579 -0.250301 -8.533334 21 58 100 
-2.826923 -0.250000 -8.523077 18 64 106 
-2.790920 -0.248507 -8.472162 19 61 105 
-2.788461 -0.250000 -8.523077 20 61 105 
-2.769231 -0.250000 -8.523077 19 56 96 
-2.753309 -0.250301 -8.533334 17 53 94 
-2.727491 -0.249700 -8.512845 18 57 99 
-2.718072 -0.250602 -8.543614 18 59 105 
-2.692308 -0.250000 -8.523077 17 61 106 
-2.679518 -0.250602 -8.543614 18 62 108 
-2.657040 -0.250301 -8.533334 19 60 105 
-2.644150 -0.250905 -8.553921 19 59 103 
-2.628019 -0.251208 -8.564252 19 61 106 
-2.611850 -0.251511 -8.574607 17 61 106 
-2.592503 -0.251511 -8.574607 18 62 105 
-2.579394 -0.252121 -8.595394 20 63 108 
-2.446602 -0.252427 -8.605825 25 70 117 
-2.427185 -0.252427 -8.605825 25 71 116 
-2.410693 -0.252734 -8.616282 25 71 115 
-2.391252 -0.252734 -8.616282 25 68 114 
-2.374696 -0.253041 -8.626764 23 65 108 
-2.355231 -0.253041 -8.626764 20 67 115 
-2.347188 -0.254279 -8.668949 21 67 117 
-2.316564 -0.255215 -8.700859 20 68 117 
-2.277301 -0.255215 -8.700859 24 70 118 
-2.252142 -0.254590 -8.679560 21 70 118 
-2.229829 -0.254279 -8.668949 18 67 118 
-2.210269 -0.254279 -8.668949 18 65 116 
-2.193390 -0.254590 -8.679560 19 66 114 
-2.173807 -0.254590 -8.679560 18 64 109 
-2.154223 -0.254590 -8.679560 21 65 111 
-2.137255 -0.254902 -8.690196 21 66 116 
-2.120245 -0.255215 -8.700859 19 66 117 
-2.100614 -0.255215 -8.700859 19 65 116 
-2.083538 -0.255528 -8.711548 18 68 117 
-2.066421 -0.255843 -8.722263 17 67 115 
-2.046741 -0.255843 -8.722263 15 65 113 
-2.029557 -0.256158 -8.733006 18 65 115 
-2.009852 -0.256158 -8.733006 20 67 115 
-1.992602 -0.256473 -8.743773 22 68 114 
-1.972873 -0.256473 -8.743773 20 65 109 
-1.955556 -0.256790 -8.754568 18 63 107 
-1.938195 -0.257108 -8.765389 16 59 104 
-1.920792 -0.257426 -8.776237 17 59 110 
-1.903346 -0.257745 -8.787113 16 60 113 
-1.883519 -0.257745 -8.787113 16 60 112 
-1.868323 -0.258385 -8.808945 18 63 109 
-1.843866 -0.257745 -8.787113 20 63 110 
-1.819530 -0.257108 -8.765389 19 63 107 
-1.804213 -0.257745 -8.787113 20 61 105 
-1.786600 -0.258065 -8.798016 21 57 100 
-1.766749 -0.258065 -8.798016 18 54 97 
-1.749068 -0.258385 -8.808945 17 57 101 
-1.711443 -0.258706 -8.819901 18 58 106 
-1.691542 -0.258706 -8.819901 18 58 105 
-1.671642 -0.258706 -8.819901 19 59 106 
-1.649689 -0.258385 -8.808945 19 58 102 
-1.631841 -0.258706 -8.819901 17 59 104 
-1.611940 -0.258706 -8.819901 18 59 106 
-1.594022 -0.259029 -8.830884 20 58 105 
-1.572139 -0.258706 -8.819901 21 60 106 
-1.558052 -0.259675 -8.852934 17 61 104 
-1.536160 -0.259352 -8.841895 19 61 105 
-1.516209 -0.259352 -8.841895 19 62 106 
-1.496259 -0.259352 -8.841895 22 61 106 
-1.480000 -0.260000 -8.864000 22 58 101 
-1.460000 -0.260000 -8.864000 20 56 99 
-1.443609 -0.260652 -8.886216 21 58 105 
-1.425345 -0.260979 -8.897366 19 59 106 
-1.408805 -0.261635 -8.919748 19 57 101 
-1.388679 -0.261635 -8.919748 20 58 103 
-1.368553 -0.261635 -8.919748 20 57 103 
-1.348428 -0.261635 -8.919748 19 58 106 
-1.329975 -0.261965 -8.930983 20 58 104 
-1.308176 -0.261635 -8.919748 21 57 103 
-1.291299 -0.262295 -8.942245 21 60 103 
-1.269521 -0.261965 -8.930983 22 60 101 
-1.213654 -0.262958 -8.964855 20 59 100 
-1.190416 -0.262295 -8.942245 23 61 101 
-1.170240 -0.262295 -8.942245 27 65 102 
-1.151515 -0.262626 -8.953536 19 53 89 
-1.134177 -0.263291 -8.976203 17 51 87 
-1.109710 -0.262295 -8.942245 15 47 82 
-1.092288 -0.262958 -8.964855 22 50 85 
-1.077510 -0.264295 -9.010420 21 52 90 
-1.055838 -0.263959 -8.998985 17 51 94 
-1.035533 -0.263959 -8.998985 13 50 96 
-1.013942 -0.263625 -8.987579 14 49 94 
-0.997455 -0.264631 -9.021883 15 48 89 
-0.973384 -0.263625 -8.987579 19 48 87 
-0.956743 -0.264631 -9.021883 20 47 86 
-0.936387 -0.264631 -9.021883 18 46 86 
-0.917197 -0.264968 -9.033376 17 47 86 
-0.899106 -0.265645 -9.056450 15 48 87 
-0.878672 -0.265645 -9.056450 17 49 87 
-0.858238 -0.265645 -9.056450 20 47 86 
-0.839949 -0.266325 -9.079641 19 46 85 
-0.819462 -0.266325 -9.079641 19 49 84 
-0.796935 -0.265645 -9.056450 18 46 80 
-0.778489 -0.266325 -9.079641 20 46 81 
-0.758974 -0.266667 -9.091282 20 46 85 
-0.736573 -0.265985 -9.068031 20 47 87 
-0.715198 -0.265645 -9.056450 19 48 85 
-0.696543 -0.266325 -9.079641 20 49 88 
-0.637532 -0.267352 -9.114654 20 49 86 
-0.616175 -0.267009 -9.102953 20 49 85 
-0.596401 -0.267352 -9.114654 21 48 85 
-0.576577 -0.267696 -9.126384 22 49 87 
-0.555985 -0.267696 -9.126384 22 49 87 
-0.535393 -0.267696 -9.126384 21 48 86 
-0.514800 -0.267696 -9.126384 21 48 85 
-0.492940 -0.267009 -9.102953 19 48 85 
-0.472401 -0.267009 -9.102953 19 46 81 
-0.451861 -0.267009 -9.102953 19 45 78 
-0.431877 -0.267352 -9.114654 18 45 80 
-0.412371 -0.268041 -9.138144 17 46 81 
-0.391753 -0.268041 -9.138144 19 45 78 
-0.370656 -0.267696 -9.126384 19 42 74 
-0.351876 -0.269082 -9.173610 16 41 74 
-0.330323 -0.268387 -9.149936 16 40 73 
-0.311284 -0.269780 -9.197406 17 42 76 
-0.290532 -0.269780 -9.197406 15 38 71 
-0.269780 -0.269780 -9.197406 17 37 68 
-0.248705 -0.269430 -9.185493 18 41 73 
-0.229465 -0.271186 -9.245372 17 43 74 
-0.207792 -0.270130 -9.209351 18 44 73 
-0.187013 -0.270130 -9.209351 18 43 74 
-0.166234 -0.270130 -9.209351 17 43 75 
-0.145833 -0.270833 -9.233334 18 41 74 
-0.062257 -0.269780 -9.197406 17 39 64 
-0.041612 -0.270481 -9.221327 17 38 67 
-0.020699 -0.269082 -9.173610 17 37 68 
0.000000 -0.270130 -9.209351 17 38 69 
0.020806 -0.270481 -9.221327 17 36 67 
0.041830 -0.271895 -9.269543 18 37 64 
0.062827 -0.272251 -9.281675 19 39 63 
0.083879 -0.272608 -9.293840 17 38 63 
0.104987 -0.272966 -9.306037 15 37 63 
0.125819 -0.272608 -9.293840 15 36 63 
0.146982 -0.272966 -9.306037 16 37 66 
0.168200 -0.273325 -9.318266 17 38 67 
0.189474 -0.273684 -9.330526 18 39 70 
0.211082 -0.274406 -9.355145 19 36 65 
0.232497 -0.274769 -9.367503 14 33 57 
0.253298 -0.274406 -9.355145 17 37 60 
0.272966 -0.272966 -9.306037 44 59 70 
0.293963 -0.272966 -9.306037 104 115 111 
1.080675 -0.390244 -13.304316 52 63 61 
7.593220 -0.705085 -24.037968 91 165 217 
7.621622 -0.702703 -23.956757 82 169 231 
7.649832 -0.700337 -23.876095 80 178 244 
7.601329 -0.691030 -23.558805 86 185 249 
7.654485 -0.691030 -23.558805 84 185 251 
7.707641 -0.691030 -23.558805 83 187 253 
7.735099 -0.688742 -23.480795 82 189 255 
7.762376 -0.686469 -23.403301 81 189 255 
8.467354 -0.714777 -24.368385 74 189 255 
8.522337 -0.714777 -24.368385 73 185 255 
8.577319 -0.714777 -24.368385 71 184 255 
8.602739 -0.712329 -24.284933 73 188 255 
10.937500 -0.812500 -27.700001 41 51 51 
11.000000 -0.812500 -27.700001 39 52 52 
11.125000 -0.812500 -27.700001 47 54 56 
11.187500 -0.812500 -27.700001 48 55 56 
12.500000 -0.812500 -27.700001 64 68 66 
12.562500 -0.812500 -27.700001 64 68 65 
12.750000 -0.812500 -27.700001 16 22 21 
12.812500 -0.812500 -27.700001 14 21 19 
12.875000 -0.812500 -27.700001 16 22 19 
12.937500 -0.812500 -27.700001 22 26 23 
13.312500 -0.812500 -27.700001 26 32 30 
13.375000 -0.812500 -27.700001 19 30 28 
13.437500 -0.812500 -27.700001 32 62 71 
13.500000 -0.812500 -27.700001 45 99 124 
13.391304 -0.753623 -25.692755 148 174 181 
13.449275 -0.753623 -25.692755 151 176 183 
13.605840 -0.759124 -25.880293 155 180 187 
13.664233 -0.759124 -25.880293 160 185 192 
-5.194445 -0.388889 -12.311111 206 208 202 
-5.166667 -0.388889 -12.311111 206 207 203 
-5.094665 -0.385542 -12.205164 204 206 203 
-2.935252 -0.268585 -8.502638 50 84 114 
-2.912575 -0.268263 -8.492455 37 61 78 
-2.903846 -0.269231 -8.523077 23 40 56 
-2.874252 -0.268263 -8.492455 17 31 50 
-2.858513 -0.268585 -8.502638 18 39 66 
-2.849579 -0.269555 -8.533334 20 55 99 
-2.830325 -0.269555 -8.533334 20 59 107 
-2.790920 -0.267622 -8.472162 19 60 107 
-2.785114 -0.268908 -8.512845 20 61 105 
-2.765906 -0.268908 -8.512845 19 58 101 
-2.753309 -0.269555 -8.533334 17 56 100 
-2.730769 -0.269231 -8.523077 20 59 104 
-2.721351 -0.270205 -8.553921 18 58 106 
-2.695548 -0.269555 -8.533334 19 60 107 
-2.682750 -0.270205 -8.553921 20 63 109 
-2.660241 -0.269880 -8.543614 20 61 104 
-2.647343 -0.270531 -8.564252 20 58 103 
-2.628019 -0.270531 -8.564252 20 63 111 
-2.611850 -0.270859 -8.574607 18 64 112 
-2.592503 -0.270859 -8.574607 18 65 110 
-2.579394 -0.271515 -8.595394 19 65 112 
-2.553809 -0.270859 -8.574607 18 64 111 
-2.537530 -0.271186 -8.584989 18 64 109 
-2.521212 -0.271515 -8.595394 18 65 114 
-2.485437 -0.271845 -8.605825 20 65 113 
-2.469016 -0.272175 -8.616282 22 67 114 
-2.449575 -0.272175 -8.616282 24 69 114 
-2.427185 -0.271845 -8.605825 24 70 113 
-2.410693 -0.272175 -8.616282 22 67 113 
-2.391252 -0.272175 -8.616282 23 66 113 
-2.374696 -0.272506 -8.626764 21 64 110 
-2.358100 -0.272838 -8.637272 18 63 112 
-2.350061 -0.274174 -8.679560 19 65 112 
-2.319410 -0.275184 -8.711548 27 70 114 
-2.294118 -0.274510 -8.690196 26 68 113 
-2.277301 -0.274847 -8.700859 21 65 112 
-2.249389 -0.273839 -8.668949 17 65 113 
-2.232558 -0.274174 -8.679560 19 67 112 
-2.207570 -0.273504 -8.658364 20 66 113 
-2.193390 -0.274174 -8.679560 18 62 112 
-2.173807 -0.274174 -8.679560 18 56 100 
-2.154223 -0.274174 -8.679560 20 60 105 
-2.137255 -0.274510 -8.690196 21 65 114 
-2.120245 -0.274847 -8.700859 17 65 116 
-2.103194 -0.275184 -8.711548 17 64 114 
-2.083538 -0.275184 -8.711548 17 66 115 
-2.068965 -0.275862 -8.733006 20 67 116 
-2.046741 -0.275523 -8.722263 19 67 117 
-2.029557 -0.275862 -8.733006 19 65 114 
-2.007380 -0.275523 -8.722263 19 64 109 
-1.990148 -0.275862 -8.733006 17 61 105 
-1.970443 -0.275862 -8.733006 20 57 102 
-1.950739 -0.275862 -8.733006 19 58 107 
-1.935802 -0.276543 -8.754568 17 58 107 
-1.916049 -0.276543 -8.754568 17 61 113 
-1.898640 -0.276885 -8.765389 17 62 113 
-1.878863 -0.276885 -8.765389 18 63 109 
-1.868323 -0.278261 -8.808945 19 63 109 
-1.843866 -0.277571 -8.787113 17 64 111 
-1.821782 -0.277228 -8.776237 19 62 110 
-1.806452 -0.277916 -8.798016 19 58 105 
-1.788820 -0.278261 -8.808945 17 54 99 
-1.766749 -0.277916 -8.798016 15 53 99 
-1.751244 -0.278607 -8.819901 13 55 100 
-1.713574 -0.278954 -8.830884 15 57 106 
-1.691542 -0.278607 -8.819901 15 57 106 
-1.675810 -0.279302 -8.841895 15 58 106 
-1.651741 -0.278607 -8.819901 16 58 106 
-1.633873 -0.278954 -8.830884 17 58 106 
-1.615960 -0.279302 -8.841895 16 57 106 
-1.598003 -0.279650 -8.852934 17 58 105 
-1.576060 -0.279302 -8.841895 19 59 105 
-1.558052 -0.279650 -8.852934 18 60 106 
-1.536160 -0.279302 -8.841895 19 58 103 
-1.514321 -0.278954 -8.830884 20 58 103 
-1.496259 -0.279302 -8.841895 19 59 106 
-1.478152 -0.279650 -8.852934 19 58 102 
-1.460000 -0.280000 -8.864000 18 53 95 
-1.443609 -0.280702 -8.886216 19 56 100 
-1.425345 -0.281054 -8.897366 20 58 101 
-1.407035 -0.281407 -8.908543 21 58 102 
-1.386935 -0.281407 -8.908543 18 57 101 
-1.366834 -0.281407 -8.908543 17 58 103 
-1.346734 -0.281407 -8.908543 19 60 107 
-1.328302 -0.281761 -8.919748 21 61 107 
-1.306533 -0.281407 -8.908543 20 58 106 
-1.289672 -0.282116 -8.930983 17 59 104 
-1.271122 -0.282472 -8.942245 19 59 105 
-1.247799 -0.281761 -8.919748 17 58 103 
-1.215190 -0.283544 -8.976203 19 60 102 
-1.190416 -0.282472 -8.942245 18 58 103 
-1.170240 -0.282472 -8.942245 21 61 102 
-1.151515 -0.282828 -8.953536 19 56 95 
-1.134177 -0.283544 -8.976203 19 55 95 
-1.111111 -0.282828 -8.953536 19 51 89 
-1.093671 -0.283544 -8.976203 20 52 90 
-1.077510 -0.284625 -9.010420 17 53 92 
-1.055838 -0.284264 -8.998985 17 53 91 
-1.036849 -0.284625 -9.010420 17 53 91 
-1.015228 -0.284264 -8.998985 17 52 94 
-0.996188 -0.284625 -9.010420 15 51 92 
-0.975858 -0.284625 -9.010420 16 51 90 
-0.956743 -0.284987 -9.021883 16 50 89 
-0.936387 -0.284987 -9.021883 17 49 91 
-0.917197 -0.285350 -9.033376 14 49 91 
-0.900256 -0.286445 -9.068031 15 51 93 
-0.877551 -0.285714 -9.044898 16 52 92 
-0.859335 -0.286445 -9.068031 16 50 89 
-0.839949 -0.286812 -9.079641 18 46 84 
-0.820513 -0.287179 -9.091282 18 45 82 
-0.797954 -0.286445 -9.068031 16 45 83 
-0.780488 -0.287548 -9.102953 17 43 80 
-0.758974 -0.287179 -9.091282 16 46 84 
-0.736573 -0.286445 -9.068031 15 46 85 
-0.715198 -0.286079 -9.056450 17 46 85 
-0.696543 -0.286812 -9.079641 17 45 82 
-0.676056 -0.286812 -9.079641 16 46 84 
-0.638353 -0.288288 -9.126384 18 45 82 
-0.616175 -0.287548 -9.102953 17 44 80 
-0.597169 -0.288288 -9.126384 17 44 81 
-0.577320 -0.288660 -9.138144 16 46 83 
-0.556701 -0.288660 -9.138144 17 46 80 
-0.535393 -0.288288 -9.126384 19 45 82 
-0.515464 -0.288660 -9.138144 18 44 83 
-0.493573 -0.287918 -9.114654 19 45 80 
-0.473008 -0.287918 -9.114654 18 45 80 
-0.452442 -0.287918 -9.114654 18 45 79 
-0.431877 -0.287918 -9.114654 19 44 79 
-0.412371 -0.288660 -9.138144 17 43 79 
-0.391248 -0.288288 -9.126384 16 43 76 
-0.370656 -0.288288 -9.126384 17 42 74 
-0.351421 -0.289406 -9.161757 15 40 73 
-0.330323 -0.289032 -9.149936 17 40 72 
-0.310881 -0.290155 -9.185493 15 40 76 
-0.290155 -0.290155 -9.185493 15 40 73 
-0.269780 -0.290532 -9.197406 16 41 72 
-0.249027 -0.290532 -9.197406 19 45 77 
-0.229465 -0.292047 -9.245372 19 44 79 
-0.207792 -0.290909 -9.209351 20 46 79 
-0.187256 -0.291287 -9.221327 18 46 80 
-0.166018 -0.290532 -9.197406 18 46 80 
-0.145644 -0.291287 -9.221327 16 44 76 
-0.062338 -0.290909 -9.209351 17 38 68 
-0.041667 -0.291667 -9.233334 17 38 69 
-0.020752 -0.290532 -9.197406 15 38 68 
0.000000 -0.291287 -9.221327 16 38 67 
0.020833 -0.291667 -9.233334 16 37 64 
0.041830 -0.292810 -9.269543 15 38 66 
0.062827 -0.293194 -9.281675 17 41 68 
0.083879 -0.293578 -9.293840 17 39 62 
0.104987 -0.293963 -9.306037 17 37 60 
0.125984 -0.293963 -9.306037 18 36 65 
0.147175 -0.294350 -9.318266 16 36 66 
0.168200 -0.294350 -9.318266 16 38 69 
0.189474 -0.294737 -9.330526 17 38 68 
0.211082 -0.295515 -9.355145 16 37 65 
0.232497 -0.295905 -9.367503 14 35 57 
0.253298 -0.295515 -9.355145 18 37 60 
0.273325 -0.294350 -9.318266 47 61 71 
0.293963 -0.293963 -9.306037 105 117 112 
1.082707 -0.421053 -13.329324 51 62 60 
7.619048 -0.761905 -24.119728 64 169 239 
7.647458 -0.759322 -24.037968 64 172 243 
7.624161 -0.751678 -23.795975 76 180 249 
7.601329 -0.744186 -23.558805 82 184 250 
7.680000 -0.746667 -23.637335 85 186 251 
7.733333 -0.746667 -23.637335 86 187 252 
7.709571 -0.739274 -23.403301 82 188 254 
8.522337 -0.769759 -24.368385 73 188 255 
12.750000 -0.875000 -27.700001 34 43 42 
12.812500 -0.875000 -27.700001 31 40 39 
12.875000 -0.875000 -27.700001 33 43 41 
12.937500 -0.875000 -27.700001 33 45 41 
13.500000 -0.875000 -27.700001 74 118 134 
13.440000 -0.814545 -25.786182 150 178 184 
13.449275 -0.811594 -25.692755 153 180 187 
13.605840 -0.817518 -25.880293 158 182 189 
-5.194445 -0.416667 -12.311111 206 207 203 
-5.166667 -0.416667 -12.311111 205 207 203 
-5.094665 -0.413081 -12.205164 204 207 201 
-5.084629 -0.414508 -12.247323 178 181 177 
-5.046794 -0.415945 -12.289775 95 129 158 
-5.019064 -0.415945 -12.289775 104 137 163 
-2.945848 -0.288809 -8.533334 58 91 119 
-2.916067 -0.287770 -8.502638 35 54 69 
-2.903846 -0.288462 -8.523077 20 36 52 
-2.877698 -0.287770 -8.502638 15 32 54 
-2.858513 -0.287770 -8.502638 18 37 65 
-2.853012 -0.289157 -8.543614 19 52 95 
-2.830325 -0.288809 -8.533334 15 56 103 
-2.794258 -0.287081 -8.482297 18 59 105 
-2.785114 -0.288115 -8.512845 21 60 104 
-2.765906 -0.288115 -8.512845 21 61 102 
-2.756627 -0.289157 -8.543614 17 58 102 
-2.734055 -0.288809 -8.533334 18 56 100 
-2.721351 -0.289505 -8.553921 19 60 103 
-2.698795 -0.289157 -8.543614 20 64 107 
-2.685990 -0.289855 -8.564252 21 64 108 
-2.660241 -0.289157 -8.543614 19 59 102 
-2.647343 -0.289855 -8.564252 18 58 103 
-2.628019 -0.289855 -8.564252 18 62 110 
-2.615012 -0.290557 -8.584989 18 63 110 
-2.589372 -0.289855 -8.564252 19 63 111 
-2.579394 -0.290909 -8.595394 21 64 114 
-2.553809 -0.290206 -8.574607 19 62 109 
-2.537530 -0.290557 -8.584989 20 63 111 
-2.521212 -0.290909 -8.595394 21 66 116 
-2.504854 -0.291262 -8.605825 22 66 114 
-2.485437 -0.291262 -8.605825 20 65 111 
-2.469016 -0.291616 -8.616282 20 69 115 
-2.449575 -0.291616 -8.616282 20 69 116 
-2.427185 -0.291262 -8.605825 20 69 115 
-2.410693 -0.291616 -8.616282 17 66 113 
-2.394161 -0.291971 -8.626764 17 65 113 
-2.380488 -0.292683 -8.647805 15 64 111 
-2.363858 -0.293040 -8.658364 16 67 116 
-2.350061 -0.293758 -8.679560 18 71 118 
-2.333333 -0.294118 -8.690196 20 71 119 
-2.316564 -0.294479 -8.700859 22 69 116 
-2.296932 -0.294479 -8.700859 20 67 115 
-2.280098 -0.294840 -8.711548 19 65 112 
-2.252142 -0.293758 -8.679560 21 69 114 
-2.235294 -0.294118 -8.690196 20 67 114 
-2.210269 -0.293399 -8.668949 20 65 112 
-2.193390 -0.293758 -8.679560 20 64 111 
-2.173807 -0.293758 -8.679560 20 59 104 
-2.154223 -0.293758 -8.679560 17 61 106 
-2.137255 -0.294118 -8.690196 15 61 108 
-2.120245 -0.294479 -8.700859 15 61 111 
-2.103194 -0.294840 -8.711548 17 62 113 
-2.083538 -0.294840 -8.711548 18 66 116 
-2.068965 -0.295566 -8.733006 22 66 114 
-2.046741 -0.295203 -8.722263 21 66 114 
-2.029557 -0.295566 -8.733006 19 65 113 
-2.007380 -0.295203 -8.722263 18 63 109 
-1.987700 -0.295203 -8.722263 19 59 108 
-1.970443 -0.295566 -8.733006 16 55 102 
-1.948339 -0.295203 -8.722263 15 58 108 
-1.933416 -0.295931 -8.743773 14 59 112 
-1.913687 -0.295931 -8.743773 17 64 116 
-1.896296 -0.296296 -8.754568 17 65 115 
-1.876543 -0.296296 -8.754568 18 63 112 
-1.868323 -0.298137 -8.808945 19 62 111 
-1.843866 -0.297398 -8.787113 21 62 112 
-1.821782 -0.297030 -8.776237 19 59 106 
-1.806452 -0.297767 -8.798016 16 56 103 
-1.788820 -0.298137 -8.808945 14 54 100 
-1.766749 -0.297767 -8.798016 13 54 100 
-1.751244 -0.298507 -8.819901 12 56 104 
-1.713574 -0.298879 -8.830884 19 59 108 
-1.691542 -0.298507 -8.819901 16 59 108 
-1.677903 -0.299625 -8.852934 19 61 107 
-1.655860 -0.299252 -8.841895 18 61 108 
-1.635910 -0.299252 -8.841895 15 61 109 
-1.615960 -0.299252 -8.841895 13 58 106 
-1.600000 -0.300000 -8.864000 15 57 106 
-1.580000 -0.300000 -8.864000 15 57 105 
-1.558052 -0.299625 -8.852934 19 58 105 
-1.536160 -0.299252 -8.841895 18 58 103 
-1.514321 -0.298879 -8.830884 19 59 105 
-1.496259 -0.299252 -8.841895 19 60 106 
-1.476309 -0.299252 -8.841895 17 57 102 
-1.460000 -0.300000 -8.864000 19 56 99 
-1.443609 -0.300752 -8.886216 20 58 103 
-1.423559 -0.300752 -8.886216 19 59 105 
-1.407035 -0.301508 -8.908543 18 58 103 
-1.386935 -0.301508 -8.908543 17 55 99 
-1.366834 -0.301508 -8.908543 20 57 104 
-1.345044 -0.301129 -8.897366 21 60 107 
-1.328302 -0.301887 -8.919748 20 61 108 
-1.308176 -0.301887 -8.919748 22 59 106 
-1.289672 -0.302267 -8.930983 19 58 101 
-1.271122 -0.302648 -8.942245 18 57 102 
-1.249370 -0.302267 -8.930983 16 58 103 
-1.216730 -0.304182 -8.987579 18 61 107 
-1.191919 -0.303030 -8.953536 17 61 106 
-1.171717 -0.303030 -8.953536 19 61 104 
-1.152971 -0.303413 -8.964855 18 58 99 
-1.134177 -0.303797 -8.976203 18 55 97 
-1.111111 -0.303030 -8.953536 18 56 95 
-1.093671 -0.303797 -8.976203 18 55 98 
-1.076142 -0.304569 -8.998985 17 54 99 
-1.055838 -0.304569 -8.998985 18 55 98 
-1.038168 -0.305344 -9.021883 21 56 99 
-1.016518 -0.304956 -9.010420 19 56 99 
-0.996188 -0.304956 -9.010420 18 56 97 
-0.977099 -0.305344 -9.021883 18 53 94 
-0.956743 -0.305344 -9.021883 18 53 93 
-0.936387 -0.305344 -9.021883 21 56 97 
-0.917197 -0.305732 -9.033376 19 56 98 
-0.900256 -0.306905 -9.068031 18 57 99 
-0.876433 -0.305732 -9.033376 19 57 100 
-0.859335 -0.306905 -9.068031 18 56 94 
-0.837803 -0.306513 -9.056450 18 52 89 
-0.819462 -0.307298 -9.079641 19 49 89 
-0.795918 -0.306122 -9.044898 19 50 89 
-0.779487 -0.307692 -9.091282 18 50 87 
-0.757033 -0.306905 -9.068031 17 50 89 
-0.736573 -0.306905 -9.068031 18 50 91 
-0.714286 -0.306122 -9.044898 17 49 89 
-0.696543 -0.307298 -9.079641 19 48 87 
-0.639175 -0.309278 -9.138144 18 43 84 
-0.617761 -0.308880 -9.126384 15 43 80 
-0.597938 -0.309278 -9.138144 15 43 79 
-0.578811 -0.310078 -9.161757 17 44 80 
-0.558140 -0.310078 -9.161757 17 43 79 
-0.536082 -0.309278 -9.138144 14 42 77 
-0.516129 -0.309677 -9.149936 15 41 77 
-0.495484 -0.309677 -9.149936 18 42 78 
-0.474227 -0.309278 -9.138144 17 42 77 
-0.454194 -0.309677 -9.149936 17 41 76 
-0.412903 -0.309677 -9.149936 17 42 77 
-0.391753 -0.309278 -9.138144 17 41 75 
-0.371613 -0.309677 -9.149936 17 42 78 
-0.351421 -0.310078 -9.161757 17 41 77 
-0.330749 -0.310078 -9.161757 15 41 73 
-0.311284 -0.311284 -9.197406 15 40 74 
-0.290532 -0.311284 -9.197406 15 39 71 
-0.270130 -0.311688 -9.209351 17 37 69 
-0.249351 -0.311688 -9.209351 16 40 71 
-0.229465 -0.312907 -9.245372 17 41 75 
-0.208333 -0.312500 -9.233334 17 44 77 
-0.187744 -0.312907 -9.245372 18 44 79 
-0.166234 -0.311688 -9.209351 18 43 78 
-0.146214 -0.313316 -9.257442 17 42 76 
-0.125654 -0.314136 -9.281675 19 42 76 
-0.083551 -0.313316 -9.257442 19 44 77 
-0.062500 -0.312500 -9.233334 19 43 76 
-0.041667 -0.312500 -9.233334 17 42 73 
-0.020779 -0.311688 -9.209351 19 42 73 
0.000000 -0.311688 -9.209351 18 42 74 
0.020806 -0.312094 -9.221327 17 42 73 
0.041775 -0.313316 -9.257442 16 41 71 
0.062745 -0.313726 -9.269543 15 39 64 
0.083770 -0.314136 -9.281675 20 38 60 
0.104849 -0.314548 -9.293840 17 38 62 
0.125984 -0.314961 -9.306037 17 39 64 
0.147175 -0.315374 -9.318266 16 38 64 
0.168421 -0.315789 -9.330526 17 40 70 
0.189474 -0.315789 -9.330526 18 41 73 
0.211082 -0.316623 -9.355145 18 38 67 
0.232497 -0.317041 -9.367503 17 34 59 
0.253298 -0.316623 -9.355145 20 37 59 
0.273325 -0.315374 -9.318266 49 63 74 
0.294350 -0.315374 -9.318266 107 117 113 
1.082707 -0.451128 -13.329324 49 63 59 
7.619048 -0.816327 -24.119728 62 170 241 
7.624161 -0.805369 -23.795975 75 180 248 
7.601329 -0.797342 -23.558805 78 182 247 
7.705686 -0.802676 -23.716389 81 185 249 
7.707641 -0.797342 -23.558805 84 186 251 
7.709571 -0.792079 -23.403301 80 187 253 
12.812500 -0.937500 -27.700001 113 147 157 
12.875000 -0.937500 -27.700001 113 147 159 
12.937500 -0.937500 -27.700001 108 145 157 
13.449275 -0.869565 -25.692755 169 195 203 
13.556364 -0.872727 -25.786182 170 195 204 
-5.203478 -0.445217 -12.332522 206 207 203 
-5.175652 -0.445217 -12.332522 205 207 203 
-5.094665 -0.440620 -12.205164 205 206 201 
-5.084629 -0.442142 -12.247323 178 180 176 
-5.038062 -0.442907 -12.268513 95 128 155 
-5.010381 -0.442907 -12.268513 97 132 159 
-2.949398 -0.308434 -8.543614 62 100 130 
-2.923077 -0.307692 -8.523077 35 58 75 
-2.907341 -0.308063 -8.533334 20 38 59 
-2.881152 -0.307323 -8.512845 16 34 56 
-2.861945 -0.307323 -8.512845 18 39 66 
-2.856454 -0.308806 -8.553921 18 54 98 
-2.830325 -0.308063 -8.533334 17 59 103 
-2.794258 -0.306220 -8.482297 20 60 104 
-2.788461 -0.307692 -8.523077 18 60 104 
-2.765906 -0.307323 -8.512845 20 60 104 
-2.756627 -0.308434 -8.543614 21 60 103 
-2.737350 -0.308434 -8.543614 19 55 97 
-2.721351 -0.308806 -8.553921 19 59 104 
-2.698795 -0.308434 -8.543614 20 64 110 
-2.689238 -0.309553 -8.574607 21 64 110 
-2.666667 -0.309179 -8.564252 17 59 105 
-2.650544 -0.309553 -8.574607 16 57 103 
-2.628019 -0.309179 -8.564252 17 60 108 
-2.615012 -0.309927 -8.584989 17 61 110 
-2.589372 -0.309179 -8.564252 19 65 113 
-2.576271 -0.309927 -8.584989 21 66 116 
-2.553809 -0.309553 -8.574607 20 66 113 
-2.540606 -0.310303 -8.595394 21 68 117 
-2.524272 -0.310680 -8.605825 23 69 120 
-2.507898 -0.311057 -8.616282 20 65 112 
-2.488457 -0.311057 -8.616282 21 62 110 
-2.469016 -0.311057 -8.616282 21 65 111 
-2.455542 -0.311815 -8.637272 21 65 113 
-2.430134 -0.311057 -8.616282 20 63 112 
-2.413625 -0.311436 -8.626764 16 62 111 
-2.397077 -0.311815 -8.637272 15 62 113 
-2.383394 -0.312576 -8.658364 16 64 115 
-2.369645 -0.313341 -8.679560 20 69 120 
-2.352941 -0.313726 -8.690196 20 71 120 
-2.336196 -0.314110 -8.700859 21 68 118 
-2.316564 -0.314110 -8.700859 19 66 115 
-2.296932 -0.314110 -8.700859 19 65 116 
-2.277301 -0.314110 -8.700859 23 64 112 
-2.254902 -0.313726 -8.690196 24 67 113 
-2.235294 -0.313726 -8.690196 21 67 112 
-2.212974 -0.313341 -8.679560 21 65 113 
-2.196079 -0.313726 -8.690196 22 66 113 
-2.173807 -0.313341 -8.679560 19 61 107 
-2.154223 -0.313341 -8.679560 18 61 108 
-2.139877 -0.314110 -8.700859 16 60 106 
-2.120245 -0.314110 -8.700859 17 56 100 
-2.105781 -0.314883 -8.722263 19 59 104 
-2.086101 -0.314883 -8.722263 21 66 115 
-2.071517 -0.315660 -8.743773 19 66 114 
-2.046741 -0.314883 -8.722263 18 62 113 
-2.029557 -0.315271 -8.733006 18 60 110 
-2.007380 -0.314883 -8.722263 17 58 106 
-1.987700 -0.314883 -8.722263 20 57 103 
-1.970443 -0.315271 -8.733006 19 58 103 
-1.948339 -0.314883 -8.722263 16 58 107 
-1.935802 -0.316049 -8.754568 15 58 109 
-1.916049 -0.316049 -8.754568 18 63 113 
-1.896296 -0.316049 -8.754568 16 63 112 
-1.876543 -0.316049 -8.754568 19 63 110 
-1.868323 -0.318012 -8.808945 20 61 109 
-1.841584 -0.316832 -8.776237 19 59 107 
-1.821782 -0.316832 -8.776237 17 56 105 
-1.808696 -0.318012 -8.808945 12 53 100 
-1.788820 -0.318012 -8.808945 15 50 96 
-1.766749 -0.317618 -8.798016 16 52 99 
-1.751244 -0.318408 -8.819901 16 58 106 
-1.713574 -0.318804 -8.830884 21 63 108 
-1.691542 -0.318408 -8.819901 22 62 108 
-1.680000 -0.320000 -8.864000 22 62 107 
-1.660000 -0.320000 -8.864000 23 63 108 
-1.635910 -0.319202 -8.841895 18 62 106 
-1.617977 -0.319600 -8.852934 16 59 105 
-1.600000 -0.320000 -8.864000 11 53 100 
-1.578027 -0.319600 -8.852934 11 52 98 
-1.554172 -0.318804 -8.830884 13 53 98 
-1.536160 -0.319202 -8.841895 13 54 99 
-1.514321 -0.318804 -8.830884 18 56 101 
-1.496259 -0.319202 -8.841895 17 57 101 
-1.478152 -0.319600 -8.852934 18 56 100 
-1.458177 -0.319600 -8.852934 17 55 97 
-1.443609 -0.320802 -8.886216 18 58 101 
-1.423559 -0.320802 -8.886216 18 57 102 
-1.405270 -0.321205 -8.897366 19 58 102 
-1.385194 -0.321205 -8.897366 19 53 96 
-1.365119 -0.321205 -8.897366 22 54 96 
-1.343358 -0.320802 -8.886216 20 55 101 
-1.328302 -0.322013 -8.919748 18 55 99 
-1.308176 -0.322013 -8.919748 20 58 104 
-1.291299 -0.322825 -8.942245 19 59 104 
-1.272727 -0.323232 -8.953536 18 57 105 
-1.254109 -0.323641 -8.964855 17 57 103 
-1.235443 -0.324051 -8.976203 19 58 105 
-1.216730 -0.324461 -8.987579 20 61 108 
-1.193426 -0.323641 -8.964855 19 62 106 
-1.171717 -0.323232 -8.953536 20 60 105 
-1.152971 -0.323641 -8.964855 19 58 102 
-1.131313 -0.323232 -8.953536 22 58 102 
-1.111111 -0.323232 -8.953536 18 59 100 
-1.093671 -0.324051 -8.976203 18 54 93 
-1.074778 -0.324461 -8.987579 19 55 93 
-1.057179 -0.325286 -9.010420 19 57 96 
-1.038168 -0.325700 -9.021883 20 55 96 
-1.019108 -0.326115 -9.033376 20 56 95 
-0.997455 -0.325700 -9.021883 19 57 95 
-0.979592 -0.326531 -9.044898 19 56 92 
-0.956743 -0.325700 -9.021883 19 57 98 
-0.936387 -0.325700 -9.021883 20 57 97 
-0.916031 -0.325700 -9.021883 19 56 95 
-0.899106 -0.326948 -9.056450 20 56 94 
-0.874206 -0.325286 -9.010420 20 56 98 
-0.858238 -0.326948 -9.056450 18 56 95 
-0.836735 -0.326531 -9.044898 18 55 92 
-0.817369 -0.326948 -9.056450 20 55 92 
-0.795918 -0.326531 -9.044898 20 54 93 
-0.777494 -0.327366 -9.068031 19 54 92 
-0.756066 -0.326948 -9.056450 18 54 91 
-0.735632 -0.326948 -9.056450 17 54 91 
-0.715198 -0.326948 -9.056450 18 53 91 
-0.695652 -0.327366 -9.068031 19 54 92 
-0.676056 -0.327785 -9.079641 19 53 91 
-0.656410 -0.328205 -9.091282 18 53 88 
-0.638353 -0.329472 -9.126384 18 51 90 
-0.617761 -0.329472 -9.126384 16 48 86 
-0.598710 -0.330323 -9.149936 18 46 84 
-0.578811 -0.330749 -9.161757 16 45 84 
-0.558862 -0.331177 -9.173610 14 44 81 
-0.536774 -0.330323 -9.149936 14 43 77 
-0.516129 -0.330323 -9.149936 15 44 78 
-0.496124 -0.330749 -9.161757 16 45 80 
-0.474839 -0.330323 -9.149936 18 45 81 
-0.454780 -0.330749 -9.161757 18 44 78 
-0.434670 -0.331177 -9.173610 18 42 75 
-0.414508 -0.331606 -9.185493 17 41 76 
-0.393273 -0.331177 -9.173610 15 39 74 
-0.373057 -0.331606 -9.185493 16 40 74 
-0.351876 -0.331177 -9.173610 15 41 75 
-0.330749 -0.330749 -9.161757 14 41 75 
-0.311284 -0.332036 -9.197406 14 41 75 
-0.290532 -0.332036 -9.197406 15 42 75 
-0.270130 -0.332468 -9.209351 18 40 74 
-0.249351 -0.332468 -9.209351 16 39 72 
-0.228869 -0.332900 -9.221327 17 38 73 
-0.208605 -0.333768 -9.245372 17 39 73 
-0.187744 -0.333768 -9.245372 14 41 72 
-0.166884 -0.333768 -9.245372 14 41 72 
-0.146214 -0.334204 -9.257442 17 42 76 
-0.125654 -0.335079 -9.281675 18 41 74 
-0.083660 -0.334641 -9.269543 17 44 76 
-0.062500 -0.333333 -9.233334 17 45 76 
-0.041721 -0.333768 -9.245372 17 44 74 
-0.020833 -0.333333 -9.233334 17 43 74 
0.000000 -0.332900 -9.221327 17 43 76 
0.020806 -0.332900 -9.221327 18 43 78 
0.041775 -0.334204 -9.257442 18 43 76 
0.062663 -0.334204 -9.257442 18 40 67 
0.083660 -0.334641 -9.269543 20 38 60 
0.104712 -0.335079 -9.281675 19 41 72 
0.125819 -0.335518 -9.293840 16 42 74 
0.146982 -0.335958 -9.306037 17 42 72 
0.168200 -0.336399 -9.318266 18 45 77 
0.189225 -0.336399 -9.318266 18 46 81 
0.211082 -0.337731 -9.355145 18 43 73 
0.232804 -0.338624 -9.379894 17 36 61 
0.253298 -0.337731 -9.355145 18 38 62 
0.273684 -0.336842 -9.330526 50 66 74 
0.295125 -0.337286 -9.342820 110 117 113 
7.619048 -0.870748 -24.119728 68 175 245 
7.699659 -0.873720 -24.202049 71 181 250 
7.624161 -0.859060 -23.795975 75 181 248 
7.626667 -0.853333 -23.637335 78 182 248 
7.705686 -0.856187 -23.716389 80 183 249 
7.707641 -0.850498 -23.558805 83 185 251 
13.556364 -0.930909 -25.786182 158 192 206 
-5.212543 -0.473868 -12.354008 206 207 202 
-5.184669 -0.473868 -12.354008 205 207 203 
-5.094665 -0.468158 -12.205164 204 206 200 
-5.084629 -0.469775 -12.247323 177 179 175 
-5.038062 -0.470588 -12.268513 90 126 155 
-2.952955 -0.328106 -8.553921 63 100 136 
-2.930120 -0.327711 -8.543614 38 61 82 
-2.910843 -0.327711 -8.543614 21 39 61 
-2.884615 -0.326923 -8.523077 18 35 65 
-2.861945 -0.326531 -8.512845 17 41 72 
-2.859903 -0.328502 -8.564252 22 56 101 
-2.826923 -0.326923 -8.523077 20 59 105 
-2.797605 -0.325749 -8.492455 21 62 108 
-2.791817 -0.327316 -8.533334 19 64 110 
-2.765906 -0.326531 -8.512845 19 64 110 
-2.756627 -0.327711 -8.543614 20 63 107 
-2.740651 -0.328106 -8.553921 21 58 99 
-2.721351 -0.328106 -8.553921 20 56 99 
-2.698795 -0.327711 -8.543614 20 57 100 
-2.689238 -0.328900 -8.574607 19 59 103 
-2.666667 -0.328502 -8.564252 18 58 101 
-2.650544 -0.328900 -8.574607 18 59 103 
-2.631197 -0.328900 -8.574607 20 64 111 
-2.615012 -0.329298 -8.584989 20 65 113 
-2.592503 -0.328900 -8.574607 20 69 117 
-2.576271 -0.329298 -8.584989 18 67 114 
-2.553809 -0.328900 -8.574607 19 67 115 
-2.540606 -0.329697 -8.595394 21 68 118 
-2.524272 -0.330097 -8.605825 23 69 116 
-2.507898 -0.330498 -8.616282 20 63 111 
-2.491484 -0.330900 -8.626764 19 62 107 
-2.472019 -0.330900 -8.626764 20 63 107 
-2.458537 -0.331707 -8.647805 16 62 110 
-2.433090 -0.330900 -8.626764 18 63 113 
-2.416565 -0.331303 -8.637272 18 64 115 
-2.400000 -0.331707 -8.647805 17 64 116 
-2.383394 -0.332112 -8.658364 19 67 116 
-2.369645 -0.332925 -8.679560 20 67 117 
-2.352941 -0.333333 -8.690196 21 69 116 
-2.333333 -0.333333 -8.690196 19 66 115 
-2.316564 -0.333742 -8.700859 17 65 116 
-2.294118 -0.333333 -8.690196 19 65 117 
-2.274510 -0.333333 -8.690196 18 63 107 
-2.235294 -0.333333 -8.690196 21 64 111 
-2.212974 -0.332925 -8.679560 21 65 111 
-2.196079 -0.333333 -8.690196 21 63 112 
-2.176471 -0.333333 -8.690196 19 62 110 
-2.151589 -0.332518 -8.668949 19 63 110 
-2.142506 -0.334152 -8.711548 20 65 109 
-2.120245 -0.333742 -8.700859 19 61 104 
-2.105781 -0.334563 -8.722263 21 61 108 
-2.086101 -0.334563 -8.722263 19 63 111 
-2.071517 -0.335388 -8.743773 16 61 109 
-2.046741 -0.334563 -8.722263 17 60 108 
-2.029557 -0.334975 -8.733006 16 56 104 
-2.007380 -0.334563 -8.722263 17 59 108 
-1.987700 -0.334563 -8.722263 16 59 106 
-1.970443 -0.334975 -8.733006 16 60 106 
-1.948339 -0.334563 -8.722263 17 59 107 
-1.933416 -0.335388 -8.743773 17 59 103 
-1.916049 -0.335802 -8.754568 17 60 105 
-1.896296 -0.335802 -8.754568 19 60 108 
-1.878863 -0.336218 -8.765389 20 59 107 
-1.866005 -0.337469 -8.798016 16 55 102 
-1.841584 -0.336634 -8.776237 16 55 102 
-1.821782 -0.336634 -8.776237 15 55 103 
-1.808696 -0.337888 -8.808945 14 53 101 
-1.788820 -0.337888 -8.808945 15 53 98 
-1.766749 -0.337469 -8.798016 16 54 97 
-1.751244 -0.338308 -8.819901 17 56 99 
-1.737828 -0.339576 -8.852934 19 58 102 
